ply
format ascii 1.0
comment created by safir
element vertex 1838
property float x
property float y
property float z
element face 0
property list uchar int vertex_indices
end_header
0.562822 0.497936 0.411927
0.534901 0.272146 0.775229
0.520412 0.455527 0.384404
0.538826 0.464909 0.366055
0.529689 0.40501 0.537563
0.51134 0.248585 0.709174
0.529689 0.267582 0.639288
0.529689 0.305555 0.674451
0.5 0.320183 0.797248
0.479588 0.455527 0.650459
0.465099 0.272146 0.819266
0.433945 0.518349 0.622936
0.529689 0.694943 0.833945
0.536697 0.283486 0.709174
0.433945 0.518349 0.76055
0.52157 0.686825 0.797248
0.437178 0.538761 0.476147
0.55344 0.479522 0.155046
0.520412 0.455527 0.714679
0.463303 0.716514 0.76055
0.5 0.584404 0.76055
0.51134 0.389337 0.560466
0.437178 0.497937 0.173395
0.47843 0.652527 0.677747
0.461174 0.571788 0.742202
0.461174 0.571788 0.1
0.529689 0.679065 0.632528
0.531781 0.283486 0.852294
0.529689 0.305056 0.753211
0.470311 0.305555 0.674451
0.47843 0.386613 0.556022
0.510953 0.249774 0.843442
0.470311 0.393464 0.542888
0.534901 0.272146 0.723853
0.47843 0.329938 0.617332
0.529689 0.261916 0.694495
0.437178 0.497937 0.659633
0.520412 0.581171 0.265138
0.44656 0.479522 0.366055
0.437178 0.497937 0.522018
0.52157 0.638555 0.665813
0.5 0.716514 0.870642
0.520412 0.581171 0.687156
0.562822 0.497936 0.824771
0.433945 0.518349 0.806422
0.528677 0.695678 0.843442
0.490179 0.686288 0.852294
0.437178 0.497937 0.182569
0.5 0.584404 0.384404
0.465099 0.300856 0.585358
0.479588 0.455527 0.56789
0.51134 0.32566 0.64124
0.5 0.603745 0.655846
0.51134 0.318388 0.775229
0.520412 0.455527 0.283486
0.5 0.452293 0.127523
0.51134 0.432286 0.542675
0.461174 0.464909 0.200917
0.509498 0.716514 0.869391
0.470311 0.691484 0.731318
0.479588 0.455527 0.797248
0.5 0.452293 0.595413
0.47843 0.686825 0.76789
0.465099 0.294826 0.76055
0.470311 0.261916 0.811927
0.529689 0.429174 0.529714
0.479588 0.455527 0.833945
0.433945 0.518349 0.210092
0.524679 0.724532 0.859894
0.47843 0.746203 0.804587
0.437178 0.538761 0.265138
0.433945 0.518349 0.347706
0.510206 0.54976 0.891149
0.465099 0.649339 0.650969
0.44656 0.557175 0.494495
0.465099 0.705174 0.819266
0.52157 0.313175 0.804587
0.470311 0.679065 0.632528
0.534901 0.272146 0.797248
0.471323 0.737349 0.843442
0.47843 0.341671 0.514694
0.55344 0.557175 0.145872
0.48866 0.318388 0.826605
0.5 0.678461 0.743329
0.529689 0.312981 0.637119
0.55344 0.557175 0.466973
0.55344 0.557175 0.118349
0.5 0.584404 0.439449
0.51134 0.318388 0.723853
0.52157 0.614537 0.652363
0.5 0.584404 0.806422
0.566055 0.518349 0.613761
0.44656 0.557175 0.613761
0.55344 0.557175 0.155046
0.566055 0.518349 0.604587
0.47843 0.408117 0.545064
0.433945 0.518349 0.255963
0.55344 0.479522 0.512844
0.536697 0.284052 0.67276
0.48866 0.367827 0.492572
0.520412 0.581171 0.69633
0.47843 0.316235 0.536418
0.52157 0.431069 0.537607
0.47843 0.376572 0.56273
0.470311 0.322704 0.613648
0.437178 0.538761 0.22844
0.534901 0.294826 0.738532
0.47843 0.610923 0.588951
0.536697 0.292467 0.630455
0.5 0.584404 0.22844
0.566055 0.518349 0.50367
0.562822 0.497936 0.677982
0.466972 0.518349 0.891149
0.55344 0.557175 0.439449
0.479588 0.455527 0.118349
0.562822 0.538761 0.127523
0.534901 0.30793 0.621277
0.5 0.586947 0.651813
0.536697 0.716514 0.76055
0.566055 0.518349 0.549541
0.5 0.598428 0.579325
0.51134 0.248585 0.731193
0.51134 0.678521 0.734429
0.562822 0.538761 0.595413
0.470311 0.694944 0.797248
0.48866 0.673095 0.717732
0.538826 0.571788 0.540367
0.510785 0.701669 0.865725
0.534901 0.294826 0.804587
0.534901 0.727854 0.826605
0.534901 0.723485 0.723637
0.538826 0.571788 0.1
0.470311 0.305056 0.694495
0.49433 0.699063 0.865725
0.51134 0.325141 0.521093
0.562822 0.538761 0.210092
0.470311 0.261916 0.731193
0.520412 0.581171 0.145872
0.470311 0.736011 0.734213
0.529689 0.317382 0.625193
0.465099 0.705174 0.76055
0.529689 0.305056 0.76055
0.44656 0.557175 0.751376
0.465099 0.727854 0.789908
0.520412 0.581171 0.457798
0.538826 0.464909 0.595413
0.5 0.584404 0.522018
0.55344 0.479522 0.476147
0.47843 0.253798 0.738532
0.437178 0.497937 0.833945
0.562822 0.497936 0.815596
0.433945 0.518349 0.200917
0.52157 0.408117 0.545064
0.520412 0.455527 0.136697
0.55344 0.557175 0.255963
0.484748 0.262493 0.859894
0.433945 0.518349 0.668807
0.465099 0.723485 0.723637
0.534901 0.621559 0.635413
0.51134 0.751415 0.826605
0.562822 0.538761 0.797248
0.47843 0.746203 0.782569
0.470311 0.694944 0.76055
0.437178 0.497937 0.311009
0.433945 0.518349 0.687156
0.5 0.679816 0.819266
0.5 0.518349 0.9
0.5 0.363177 0.583362
0.461174 0.571788 0.788073
0.48866 0.687723 0.622393
0.470311 0.305056 0.804587
0.470311 0.668684 0.624345
0.534901 0.413776 0.523435
0.470311 0.643327 0.659248
0.465099 0.436495 0.494727
0.534901 0.365787 0.547886
0.437178 0.538761 0.375229
0.48866 0.399516 0.554767
0.48866 0.669418 0.709754
0.47843 0.385394 0.490209
0.562822 0.538761 0.448624
0.470311 0.284266 0.594062
0.52157 0.746203 0.775229
0.520412 0.581171 0.283486
0.505583 0.275802 0.869391
0.520412 0.581171 0.733028
0.5 0.320183 0.833945
0.47843 0.253798 0.789908
0.44656 0.557175 0.50367
0.5 0.753211 0.76055
0.491981 0.691835 0.859894
0.437178 0.497937 0.494495
0.566055 0.518349 0.136697
0.44656 0.479522 0.595413
0.48866 0.334582 0.619699
0.48866 0.449838 0.469442
0.538826 0.464909 0.274312
0.48866 0.248585 0.694495
0.534901 0.294826 0.709174
0.538826 0.571788 0.577064
0.47843 0.674062 0.707387
0.5 0.452293 0.586239
0.479588 0.581171 0.733028
0.479007 0.268234 0.859894
0.538826 0.464909 0.714679
0.47843 0.686825 0.76055
0.566055 0.518349 0.292661
0.514844 0.705728 0.865725
0.534901 0.272146 0.738532
0.437178 0.538761 0.733028
0.48866 0.248585 0.811927
0.566055 0.518349 0.375229
0.51134 0.318388 0.789908
0.437178 0.497937 0.347706
0.48866 0.249258 0.670022
0.52157 0.450247 0.474639
0.5 0.301835 0.865725
0.534901 0.272146 0.753211
0.461174 0.464909 0.522018
0.5 0.283486 0.870642
0.5 0.283486 0.870642
0.461174 0.571788 0.384404
0.55344 0.479522 0.109174
0.529689 0.328916 0.602554
0.5 0.452293 0.677982
0.538826 0.571788 0.63211
0.437178 0.538761 0.320183
0.534901 0.611581 0.631732
0.566055 0.518349 0.173395
0.437178 0.538761 0.677982
0.433945 0.518349 0.540367
0.536697 0.297453 0.616939
0.5 0.400332 0.556367
0.461174 0.571788 0.769725
0.535447 0.716514 0.843442
0.465099 0.618589 0.610161
0.470311 0.738084 0.775229
0.470311 0.737565 0.747339
0.5 0.452293 0.255963
0.538826 0.571788 0.366055
0.566055 0.518349 0.430275
0.465099 0.705174 0.76789
0.461174 0.571788 0.677982
0.479588 0.581171 0.751376
0.5 0.320183 0.701835
0.479588 0.455527 0.402752
0.479588 0.455527 0.622936
0.465099 0.272146 0.753211
0.465099 0.277529 0.641673
0.534901 0.295357 0.673648
0.479588 0.581171 0.522018
0.538826 0.571788 0.494495
0.5 0.584404 0.155046
0.529689 0.292133 0.580015
0.55344 0.479522 0.494495
0.433945 0.518349 0.641285
0.48866 0.698199 0.632077
0.536697 0.310525 0.591285
0.534901 0.352457 0.529538
0.47843 0.649844 0.603306
0.479007 0.298739 0.859894
0.55344 0.557175 0.69633
0.47843 0.253798 0.76789
0.461174 0.464909 0.283486
0.474289 0.697834 0.852294
0.479588 0.581171 0.833945
0.48866 0.612542 0.657178
0.534901 0.294826 0.745872
0.55344 0.479522 0.677982
0.538826 0.464909 0.127523
0.470311 0.301078 0.566628
0.5 0.647571 0.682705
0.55344 0.557175 0.76055
0.5 0.584404 0.494495
0.5 0.584404 0.16422
0.534901 0.657692 0.657556
0.47843 0.39715 0.550121
0.5 0.518349 0.9
0.562822 0.538761 0.173395
0.433945 0.518349 0.595413
0.465099 0.294826 0.833945
0.44656 0.557175 0.182569
0.538826 0.571788 0.476147
0.50567 0.266035 0.865725
0.502935 0.707481 0.869391
0.529689 0.305056 0.789908
0.51134 0.248585 0.716514
0.534901 0.727854 0.833945
0.5 0.283486 0.870642
0.5 0.452293 0.448624
0.48866 0.318388 0.709174
0.520835 0.312163 0.843442
0.52157 0.658768 0.684499
0.48866 0.248585 0.826605
0.538826 0.464909 0.677982
0.47843 0.253798 0.694495
0.47843 0.63726 0.597505
0.52672 0.537762 0.891149
0.48866 0.280766 0.573049
0.48866 0.248585 0.782569
0.5 0.452293 0.659633
0.461174 0.571788 0.540367
0.5 0.246789 0.731193
0.479588 0.581171 0.145872
0.479588 0.455527 0.210092
0.529689 0.671029 0.686947
0.562822 0.538761 0.384404
0.470311 0.305056 0.797248
0.562822 0.538761 0.457798
0.51134 0.751415 0.819266
0.5 0.584404 0.751376
0.461174 0.571788 0.824771
0.437178 0.538761 0.356881
0.52157 0.254455 0.670429
0.48866 0.665125 0.702088
0.47843 0.746203 0.811927
0.437178 0.497937 0.430275
0.5 0.283486 0.870642
0.463303 0.292467 0.630455
0.5 0.584404 0.549541
0.520412 0.581171 0.742202
0.5 0.751961 0.843442
0.479007 0.731766 0.859894
0.55344 0.479522 0.421101
0.55344 0.479522 0.641285
0.5 0.452293 0.320183
0.49433 0.300937 0.865725
0.461174 0.464909 0.50367
0.5 0.716514 0.870642
0.538826 0.571788 0.155046
0.437178 0.497937 0.733028
0.465099 0.426786 0.519765
0.479588 0.581171 0.393578
0.47843 0.253798 0.687156
0.47843 0.746203 0.797248
0.520412 0.455527 0.723853
0.55344 0.557175 0.237615
0.562822 0.538761 0.668807
0.520412 0.581171 0.329358
0.520412 0.455527 0.173395
0.50567 0.699063 0.865725
0.520412 0.581171 0.439449
0.48866 0.62587 0.587754
0.448381 0.555852 0.851042
0.470311 0.725268 0.696121
0.52157 0.253797 0.797248
0.465099 0.336071 0.575354
0.538826 0.571788 0.145872
0.47843 0.630909 0.660705
0.5 0.584404 0.778899
0.5 0.734862 0.865725
0.44656 0.557175 0.705505
0.536697 0.283486 0.775229
0.463303 0.716514 0.811927
0.475321 0.724532 0.859894
0.470311 0.305056 0.833945
0.470311 0.738084 0.804587
0.5 0.283486 0.870642
0.465099 0.697654 0.667604
0.562822 0.497936 0.714679
0.5 0.452293 0.200917
0.5 0.452293 0.191743
0.479588 0.581171 0.723853
0.465099 0.705174 0.826605
0.461174 0.464909 0.56789
0.461174 0.464909 0.210092
0.461174 0.571788 0.136697
0.433945 0.518349 0.50367
0.529689 0.434895 0.484624
0.47843 0.313175 0.687156
0.461174 0.464909 0.668807
0.465099 0.727854 0.826605
0.55344 0.557175 0.824771
0.5 0.679816 0.811927
0.5 0.584404 0.173395
0.479588 0.581171 0.448624
0.5 0.742463 0.859894
0.52157 0.694513 0.635761
0.55344 0.479522 0.751376
0.5 0.283486 0.870642
0.5 0.718168 0.652701
0.48866 0.749178 0.732128
0.48866 0.443729 0.5404
0.52157 0.313175 0.76789
0.5 0.246789 0.775229
0.5 0.452293 0.292661
0.538826 0.571788 0.613761
0.55344 0.557175 0.16422
0.531781 0.716514 0.852294
0.520412 0.455527 0.833945
0.48866 0.681612 0.76789
0.514844 0.294271 0.865725
0.510785 0.731358 0.865725
0.437178 0.538761 0.173395
0.534901 0.272146 0.76789
0.55344 0.479522 0.522018
0.517451 0.277816 0.865725
0.520412 0.455527 0.63211
0.479588 0.581171 0.815596
0.536697 0.283486 0.76789
0.534901 0.720115 0.711685
0.525949 0.716514 0.859894
0.44656 0.479522 0.659633
0.52157 0.285211 0.575773
0.534901 0.698544 0.718694
0.455578 0.532782 0.880653
0.461174 0.464909 0.421101
0.538826 0.464909 0.577064
0.44656 0.557175 0.577064
0.562822 0.497936 0.778899
0.437178 0.538761 0.347706
0.5 0.716514 0.870642
0.44656 0.479522 0.1
0.463303 0.283486 0.738532
0.52157 0.746203 0.811927
0.433945 0.518349 0.833945
0.5 0.452293 0.402752
0.482904 0.518349 0.89775
0.562822 0.497936 0.338532
0.52157 0.622887 0.656213
0.533028 0.518349 0.891149
0.51134 0.64239 0.675472
0.566055 0.518349 0.402752
0.55344 0.557175 0.815596
0.562822 0.538761 0.311009
0.48866 0.318388 0.782569
0.55344 0.479522 0.311009
0.562822 0.497936 0.540367
0.55344 0.557175 0.641285
0.5 0.283486 0.870642
0.461174 0.571788 0.173395
0.461174 0.571788 0.586239
0.47843 0.686825 0.804587
0.479588 0.581171 0.301835
0.465099 0.378523 0.513563
0.47843 0.720197 0.668341
0.566055 0.518349 0.255963
0.520412 0.455527 0.311009
0.52157 0.253797 0.76055
0.538826 0.571788 0.182569
0.5 0.658791 0.695839
0.489215 0.701669 0.865725
0.465099 0.327703 0.585971
0.529689 0.70593 0.661593
0.479588 0.581171 0.668807
0.465099 0.641514 0.619655
0.47843 0.253798 0.745872
0.480283 0.457667 0.851042
0.51134 0.248585 0.775229
0.514844 0.727299 0.865725
0.534901 0.272146 0.709174
0.529689 0.352481 0.572664
0.536697 0.283486 0.826605
0.538826 0.571788 0.384404
0.463303 0.283486 0.789908
0.5 0.452293 0.118349
0.44656 0.557175 0.384404
0.55344 0.557175 0.191743
0.437178 0.538761 0.769725
0.530225 0.706693 0.852294
0.44656 0.479522 0.677982
0.44656 0.479522 0.56789
0.55344 0.557175 0.797248
0.479588 0.455527 0.466973
0.461174 0.464909 0.393578
0.529689 0.382372 0.549101
0.562822 0.538761 0.494495
0.461174 0.464909 0.806422
0.51134 0.367827 0.492572
0.437178 0.538761 0.145872
0.51134 0.62587 0.587754
0.538826 0.571788 0.815596
0.479588 0.581171 0.127523
0.461174 0.464909 0.109174
0.55344 0.479522 0.329358
0.538826 0.464909 0.338532
0.520412 0.455527 0.200917
0.51134 0.318388 0.753211
0.479588 0.581171 0.641285
0.562822 0.538761 0.109174
0.485566 0.56277 0.880653
0.520412 0.455527 0.255963
0.461174 0.464909 0.375229
0.5 0.584404 0.50367
0.534901 0.345247 0.565431
0.55344 0.557175 0.476147
0.437178 0.538761 0.16422
0.51134 0.6043 0.65414
0.461174 0.464909 0.155046
0.437178 0.538761 0.63211
0.520412 0.455527 0.366055
0.490502 0.716514 0.869391
0.47843 0.313175 0.731193
0.534901 0.672421 0.640308
0.47843 0.313175 0.804587
0.479588 0.455527 0.292661
0.465099 0.294826 0.694495
0.469775 0.726335 0.852294
0.48866 0.751415 0.826605
0.55344 0.479522 0.16422
0.520412 0.581171 0.430275
0.465099 0.621559 0.635413
0.44656 0.557175 0.338532
0.437178 0.497937 0.558716
0.461174 0.464909 0.824771
0.562822 0.497936 0.769725
0.5 0.452293 0.430275
0.461174 0.464909 0.512844
0.538826 0.571788 0.622936
0.520412 0.581171 0.356881
0.536697 0.716514 0.76789
0.470311 0.305056 0.701835
0.465099 0.377026 0.540378
0.5 0.653026 0.597064
0.490967 0.280551 0.869391
0.51134 0.449838 0.469442
0.5 0.634435 0.671483
0.52157 0.68359 0.733215
0.562822 0.497936 0.705505
0.52157 0.686464 0.751361
0.479588 0.581171 0.402752
0.479588 0.581171 0.265138
0.465099 0.294826 0.745872
0.534901 0.406768 0.501864
0.468589 0.528555 0.891149
0.509498 0.283486 0.869391
0.437178 0.538761 0.650459
0.44656 0.557175 0.292661
0.534901 0.685214 0.68978
0.536697 0.592688 0.615567
0.470311 0.305056 0.789908
0.433945 0.518349 0.384404
0.525949 0.283486 0.859894
0.562822 0.497936 0.136697
0.5 0.584404 0.733028
0.479588 0.581171 0.155046
0.479588 0.455527 0.283486
0.529689 0.635152 0.653784
0.44656 0.557175 0.145872
0.465099 0.294826 0.804587
0.437178 0.538761 0.494495
0.48866 0.742522 0.704404
0.48866 0.318388 0.731193
0.470311 0.634153 0.605006
0.48866 0.318388 0.723853
0.44656 0.557175 0.595413
0.44656 0.479522 0.439449
0.562822 0.538761 0.301835
0.530225 0.726335 0.852294
0.566055 0.518349 0.274312
0.562822 0.497936 0.723853
0.465099 0.725907 0.735813
0.534901 0.631217 0.639864
0.44656 0.479522 0.329358
0.44656 0.557175 0.320183
0.461174 0.571788 0.751376
0.465099 0.38882 0.533773
0.48866 0.290294 0.558793
0.479588 0.455527 0.356881
0.461174 0.571788 0.292661
0.51134 0.421057 0.545842
0.44656 0.557175 0.522018
0.5 0.251705 0.852294
0.465099 0.272146 0.833945
0.520412 0.455527 0.677982
0.470311 0.271952 0.623791
0.480587 0.545068 0.891149
0.470311 0.261916 0.701835
0.534901 0.594462 0.604367
0.5 0.452293 0.723853
0.47843 0.454906 0.533831
0.55344 0.557175 0.723853
0.534901 0.392416 0.50716
0.44656 0.479522 0.687156
0.5 0.247468 0.669879
0.479588 0.581171 0.577064
0.44656 0.479522 0.577064
0.433945 0.518349 0.448624
0.48866 0.318388 0.804587
0.47843 0.686825 0.789908
0.562822 0.538761 0.815596
0.51134 0.648841 0.681435
0.55344 0.479522 0.237615
0.465099 0.631217 0.639864
0.562822 0.538761 0.531193
0.51134 0.383399 0.485391
0.5 0.753211 0.797248
0.51134 0.673096 0.717732
0.489215 0.268642 0.865725
0.44656 0.557175 0.311009
0.479588 0.581171 0.76055
0.470311 0.454268 0.525739
0.5 0.283486 0.870642
0.461174 0.464909 0.815596
0.536697 0.283486 0.804587
0.534901 0.705174 0.775229
0.47843 0.669569 0.699365
0.538826 0.464909 0.384404
0.433945 0.518349 0.494495
0.529689 0.694943 0.797248
0.470311 0.646158 0.610543
0.466375 0.472068 0.866973
0.48866 0.67652 0.61356
0.5 0.584404 0.292661
0.470311 0.70593 0.661593
0.51134 0.681612 0.797248
0.465099 0.272146 0.701835
0.520412 0.455527 0.292661
0.463303 0.283486 0.804587
0.5 0.518349 0.9
0.55344 0.479522 0.466973
0.536697 0.716514 0.833945
0.536697 0.283486 0.819266
0.465099 0.406768 0.501864
0.520412 0.455527 0.22844
0.520412 0.581171 0.393578
0.52157 0.253797 0.819266
0.534901 0.705174 0.76789
0.433945 0.518349 0.393578
0.461174 0.571788 0.659633
0.538826 0.571788 0.687156
0.479588 0.581171 0.384404
0.51134 0.410111 0.549883
0.538826 0.571788 0.485321
0.562822 0.538761 0.63211
0.538826 0.571788 0.219266
0.469775 0.273666 0.852294
0.52157 0.417208 0.479872
0.48866 0.751415 0.782569
0.5 0.452293 0.742202
0.5 0.584404 0.246789
0.55344 0.557175 0.219266
0.479588 0.455527 0.733028
0.465099 0.309355 0.572639
0.465099 0.272146 0.687156
0.51134 0.329698 0.630294
0.538826 0.464909 0.641285
0.529689 0.651048 0.665332
0.47843 0.313175 0.716514
0.536697 0.716514 0.826605
0.47843 0.313175 0.782569
0.5 0.246789 0.745872
0.55344 0.479522 0.714679
0.51134 0.318845 0.675497
0.479588 0.581171 0.246789
0.562822 0.497936 0.69633
0.470311 0.719733 0.684117
0.520412 0.581171 0.155046
0.562822 0.497936 0.806422
0.538826 0.571788 0.127523
0.51134 0.751415 0.782569
0.55344 0.557175 0.1
0.479165 0.312163 0.843442
0.461174 0.571788 0.16422
0.461174 0.464909 0.705505
0.47843 0.442913 0.535251
0.437178 0.538761 0.329358
0.52157 0.652527 0.677747
0.562822 0.538761 0.687156
0.525711 0.302167 0.852294
0.562822 0.497936 0.733028
0.494417 0.70883 0.869391
0.433945 0.518349 0.136697
0.479588 0.581171 0.806422
0.51134 0.751415 0.833945
0.51134 0.399487 0.479457
0.461174 0.571788 0.109174
0.44656 0.557175 0.622936
0.465099 0.601345 0.628844
0.5 0.584404 0.393578
0.566055 0.518349 0.723853
0.479588 0.455527 0.63211
0.48866 0.353987 0.590657
0.47843 0.605911 0.649182
0.489215 0.731358 0.865725
0.52157 0.313175 0.819266
0.494417 0.724198 0.869391
0.538826 0.571788 0.421101
0.55344 0.557175 0.733028
0.538826 0.464909 0.522018
0.44656 0.557175 0.173395
0.47843 0.664461 0.691721
0.490179 0.313711 0.852294
0.433945 0.518349 0.127523
0.534901 0.704756 0.749923
0.5 0.311279 0.531464
0.55344 0.479522 0.347706
0.48866 0.248585 0.804587
0.538826 0.571788 0.274312
0.52157 0.313175 0.709174
0.5 0.518349 0.9
0.437178 0.497937 0.531193
0.470311 0.681295 0.703703
0.437178 0.497937 0.549541
0.465099 0.705174 0.775229
0.51134 0.318388 0.709174
0.566055 0.518349 0.540367
0.538826 0.464909 0.494495
0.5 0.653439 0.689053
0.534901 0.294826 0.701835
0.44656 0.557175 0.742202
0.529689 0.733432 0.721248
0.52157 0.664461 0.691721
0.562822 0.538761 0.50367
0.538826 0.571788 0.751376
0.55344 0.479522 0.265138
0.52157 0.732769 0.693017
0.520412 0.455527 0.191743
0.437178 0.497937 0.76055
0.48866 0.318388 0.76055
0.534901 0.294826 0.797248
0.534901 0.294826 0.687156
0.437178 0.538761 0.540367
0.479588 0.581171 0.824771
0.479588 0.581171 0.466973
0.566055 0.518349 0.338532
0.538826 0.464909 0.200917
0.538826 0.464909 0.788073
0.468589 0.508143 0.891149
0.437178 0.497937 0.604587
0.44656 0.479522 0.531193
0.520412 0.455527 0.586239
0.52157 0.253797 0.687156
0.465099 0.296946 0.660228
0.51134 0.352865 0.500951
0.437178 0.538761 0.577064
0.562822 0.497936 0.292661
0.433945 0.518349 0.182569
0.5 0.452293 0.815596
0.52157 0.454906 0.533831
0.562822 0.497936 0.329358
0.48866 0.751415 0.811927
0.437178 0.497937 0.292661
0.536697 0.283486 0.701835
0.566055 0.518349 0.301835
0.55344 0.557175 0.485321
0.520412 0.455527 0.127523
0.463303 0.396755 0.517637
0.47843 0.703919 0.645938
0.566055 0.518349 0.806422
0.51868 0.690803 0.852294
0.5 0.584404 0.237615
0.562822 0.497936 0.320183
0.433945 0.518349 0.659633
0.461174 0.464909 0.265138
0.461174 0.571788 0.549541
0.470311 0.694557 0.750727
0.55344 0.479522 0.650459
0.536697 0.283486 0.731193
0.55344 0.557175 0.200917
0.55344 0.479522 0.733028
0.562822 0.538761 0.274312
0.461174 0.571788 0.155046
0.48866 0.320217 0.663912
0.51134 0.248585 0.789908
0.5 0.283486 0.870642
0.55344 0.479522 0.549541
0.51134 0.248585 0.76789
0.44656 0.479522 0.549541
0.534901 0.640496 0.645061
0.5 0.327368 0.641795
0.502935 0.274453 0.869391
0.538826 0.464909 0.806422
0.538826 0.571788 0.650459
0.48866 0.681612 0.819266
0.52157 0.313175 0.775229
0.461174 0.464909 0.650459
0.465099 0.294826 0.731193
0.538826 0.571788 0.356881
0.461174 0.464909 0.136697
0.55344 0.557175 0.457798
0.463303 0.712458 0.726283
0.5 0.320183 0.731193
0.538826 0.571788 0.76055
0.534901 0.727854 0.804587
0.479588 0.581171 0.411927
0.5 0.279235 0.57211
0.562822 0.497936 0.301835
0.437178 0.497937 0.650459
0.48866 0.346765 0.59982
0.44656 0.479522 0.769725
0.529689 0.694558 0.750727
0.472546 0.556136 0.880653
0.44656 0.557175 0.411927
0.461174 0.571788 0.255963
0.474051 0.716514 0.859894
0.437178 0.538761 0.742202
0.479588 0.581171 0.687156
0.55344 0.557175 0.806422
0.437178 0.538761 0.366055
0.486169 0.528398 0.89775
0.470311 0.697746 0.651211
0.520412 0.455527 0.540367
0.55344 0.557175 0.677982
0.538826 0.571788 0.522018
0.510954 0.750226 0.843442
0.536697 0.283486 0.738532
0.52157 0.341671 0.514694
0.5 0.452293 0.347706
0.437178 0.538761 0.723853
0.470311 0.40501 0.537563
0.479588 0.581171 0.109174
0.55344 0.479522 0.540367
0.55344 0.557175 0.448624
0.538826 0.571788 0.246789
0.479588 0.455527 0.824771
0.470311 0.738084 0.76789
0.5 0.584404 0.797248
0.51134 0.248585 0.811927
0.47843 0.638555 0.665813
0.47843 0.335838 0.606796
0.51134 0.248585 0.687156
0.566055 0.518349 0.1
0.437178 0.497937 0.200917
0.470311 0.261916 0.833945
0.55344 0.479522 0.439449
0.47843 0.658768 0.684499
0.534901 0.426786 0.519765
0.5 0.452293 0.16422
0.534901 0.309355 0.572639
0.5 0.452293 0.577064
0.520412 0.581171 0.402752
0.52157 0.401098 0.484415
0.562822 0.497936 0.16422
0.55344 0.557175 0.356881
0.534901 0.705174 0.789908
0.48374 0.513066 0.89775
0.529689 0.694943 0.811927
0.538826 0.571788 0.733028
0.55344 0.557175 0.63211
0.5 0.452293 0.182569
0.48866 0.322493 0.65247
0.44656 0.479522 0.118349
0.437178 0.497937 0.439449
0.52157 0.610923 0.588951
0.44656 0.557175 0.476147
0.538826 0.571788 0.714679
0.5 0.355353 0.591824
0.5 0.320636 0.67564
0.52157 0.253797 0.738532
0.463303 0.592688 0.615567
0.470311 0.664942 0.679226
0.479588 0.455527 0.677982
0.538826 0.464909 0.265138
0.529689 0.738084 0.826605
0.520412 0.455527 0.604587
0.470311 0.733432 0.721248
0.463303 0.636365 0.629762
0.465099 0.272146 0.709174
0.437178 0.497937 0.402752
0.534901 0.705174 0.804587
0.479588 0.581171 0.50367
0.534901 0.281682 0.626951
0.44656 0.557175 0.109174
0.534901 0.689967 0.657853
0.51134 0.681612 0.76789
0.5 0.584404 0.219266
0.461174 0.464909 0.22844
0.44656 0.557175 0.301835
0.5 0.518349 0.9
0.536697 0.337228 0.557413
0.529689 0.697746 0.651211
0.55344 0.557175 0.274312
0.470311 0.305056 0.709174
0.48866 0.64239 0.675472
0.52157 0.686825 0.819266
0.48866 0.251274 0.652991
0.465099 0.286976 0.612598
0.5 0.74423 0.70385
0.470311 0.261916 0.76789
0.48866 0.681612 0.782569
0.479588 0.455527 0.127523
0.470311 0.30953 0.649358
0.52157 0.746203 0.826605
0.536697 0.716514 0.775229
0.479588 0.455527 0.778899
0.461174 0.571788 0.714679
0.44656 0.479522 0.558716
0.536697 0.288556 0.644323
0.55344 0.479522 0.411927
0.481651 0.716514 0.865725
0.48866 0.32566 0.64124
0.562822 0.538761 0.411927
0.538826 0.571788 0.191743
0.509033 0.713579 0.869391
0.536697 0.716061 0.749035
0.437178 0.497937 0.338532
0.479007 0.701261 0.859894
0.5 0.283486 0.870642
0.520412 0.455527 0.733028
0.5 0.452293 0.457798
0.463303 0.716514 0.775229
0.44656 0.479522 0.63211
0.461174 0.464909 0.577064
0.479588 0.455527 0.155046
0.52157 0.313175 0.789908
0.520412 0.581171 0.586239
0.47843 0.317424 0.651251
0.562822 0.497936 0.356881
0.5 0.584404 0.512844
0.520412 0.455527 0.76055
0.55344 0.557175 0.586239
0.538826 0.464909 0.109174
0.5 0.584404 0.265138
0.527454 0.480561 0.880653
0.534901 0.299583 0.646969
0.562822 0.538761 0.402752
0.529689 0.305056 0.709174
0.5 0.320183 0.811927
0.470311 0.261916 0.687156
0.534901 0.697654 0.667604
0.437178 0.497937 0.127523
0.461174 0.464909 0.466973
0.51134 0.290294 0.558793
0.48866 0.681612 0.833945
0.463303 0.716514 0.782569
0.536697 0.716514 0.797248
0.520412 0.455527 0.109174
0.538826 0.571788 0.50367
0.538826 0.571788 0.659633
0.437178 0.538761 0.457798
0.463303 0.303485 0.603853
0.520412 0.581171 0.1
0.485156 0.705729 0.865725
0.562822 0.538761 0.613761
0.566055 0.518349 0.76055
0.538826 0.464909 0.237615
0.461174 0.464909 0.356881
0.465099 0.672421 0.640308
0.465099 0.694863 0.708716
0.529689 0.694943 0.775229
0.44656 0.479522 0.421101
0.461174 0.571788 0.723853
0.445594 0.536026 0.866973
0.544422 0.503915 0.880653
0.562822 0.497936 0.237615
0.536697 0.615085 0.620947
0.437178 0.497937 0.788073
0.52157 0.350024 0.587273
0.534901 0.703506 0.739362
0.52157 0.253797 0.804587
0.534901 0.355173 0.556257
0.562822 0.538761 0.833945
0.544422 0.532782 0.880653
0.470311 0.261916 0.782569
0.51134 0.346765 0.59982
0.538826 0.571788 0.457798
0.505583 0.724198 0.869391
0.55344 0.479522 0.210092
0.433945 0.518349 0.292661
0.461174 0.464909 0.439449
0.5 0.452293 0.733028
0.44656 0.479522 0.824771
0.51134 0.248585 0.797248
0.470311 0.694944 0.833945
0.5 0.739244 0.690334
0.48866 0.325141 0.521093
0.48132 0.742225 0.852294
0.433945 0.518349 0.356881
0.538826 0.464909 0.833945
0.51134 0.248585 0.782569
0.520412 0.455527 0.751376
0.538826 0.571788 0.705505
0.55344 0.479522 0.788073
0.52157 0.253797 0.775229
0.470311 0.261916 0.694495
0.538826 0.571788 0.466973
0.534901 0.727854 0.797248
0.566055 0.518349 0.512844
0.538826 0.571788 0.769725
0.5 0.452293 0.421101
0.461174 0.464909 0.411927
0.470311 0.261916 0.709174
0.463303 0.283486 0.775229
0.536697 0.716514 0.804587
0.536697 0.283486 0.694495
0.513831 0.5083 0.89775
0.529689 0.261916 0.826605
0.562822 0.538761 0.200917
0.479588 0.581171 0.356881
0.5 0.452293 0.549541
0.470311 0.305056 0.753211
0.5 0.283486 0.870642
0.433945 0.518349 0.677982
0.47843 0.746203 0.833945
0.47843 0.313175 0.797248
0.529689 0.694943 0.789908
0.5 0.452293 0.69633
0.536697 0.646422 0.635391
0.52157 0.313175 0.811927
0.534901 0.451687 0.492928
0.55344 0.479522 0.742202
0.461174 0.571788 0.622936
0.538826 0.464909 0.311009
0.470311 0.738084 0.833945
0.508019 0.308165 0.859894
0.461174 0.571788 0.375229
0.47843 0.304873 0.548708
0.497065 0.292519 0.869391
0.520412 0.455527 0.338532
0.461174 0.571788 0.668807
0.433945 0.518349 0.311009
0.437178 0.497937 0.714679
0.5 0.452293 0.604587
0.5 0.283486 0.870642
0.437178 0.497937 0.1
0.463303 0.283486 0.76789
0.479588 0.455527 0.109174
0.55344 0.479522 0.338532
0.52157 0.253797 0.753211
0.537503 0.466729 0.851042
0.538826 0.464909 0.320183
0.44656 0.557175 0.815596
0.520412 0.455527 0.356881
0.461174 0.571788 0.274312
0.470311 0.596062 0.594264
0.520412 0.455527 0.457798
0.479588 0.581171 0.705505
0.520412 0.581171 0.659633
0.461174 0.571788 0.705505
0.5 0.452293 0.76055
0.52157 0.313175 0.753211
0.470311 0.267582 0.639288
0.55344 0.557175 0.558716
0.538826 0.464909 0.329358
0.55344 0.557175 0.283486
0.529689 0.261916 0.738532
0.538826 0.464909 0.182569
0.520412 0.455527 0.549541
0.465099 0.705174 0.833945
0.562822 0.497936 0.210092
0.47843 0.419446 0.540884
0.52157 0.253797 0.716514
0.437178 0.538761 0.778899
0.55344 0.479522 0.604587
0.47843 0.313175 0.775229
0.470311 0.617644 0.644862
0.465099 0.293381 0.598708
0.48866 0.654805 0.687886
0.529689 0.738084 0.819266
0.520412 0.455527 0.659633
0.5 0.679816 0.826605
0.47843 0.313175 0.745872
0.479588 0.581171 0.1
0.47843 0.673456 0.617776
0.465099 0.272747 0.671872
0.5 0.716514 0.870642
0.529689 0.277525 0.608683
0.529689 0.264441 0.655079
0.520412 0.455527 0.69633
0.55344 0.557175 0.650459
0.538826 0.571788 0.292661
0.47843 0.253798 0.819266
0.437178 0.538761 0.512844
0.566055 0.518349 0.265138
0.566055 0.518349 0.320183
0.520412 0.581171 0.118349
0.5 0.584404 0.356881
0.433945 0.518349 0.769725
0.461174 0.464909 0.292661
0.437178 0.497937 0.329358
0.51134 0.248585 0.738532
0.433945 0.518349 0.778899
0.538826 0.464909 0.430275
0.461174 0.464909 0.255963
0.463303 0.700514 0.693908
0.437178 0.497937 0.265138
0.5 0.584404 0.200917
0.480283 0.57903 0.851042
0.433945 0.518349 0.1
0.463303 0.716061 0.749035
0.538826 0.464909 0.411927
0.47843 0.253798 0.804587
0.465099 0.294826 0.716514
0.465099 0.365787 0.547886
0.44656 0.479522 0.540367
0.44656 0.479522 0.778899
0.48132 0.690803 0.852294
0.48866 0.598148 0.581097
0.48866 0.248585 0.789908
0.533624 0.564628 0.866973
0.433945 0.518349 0.815596
0.538826 0.464909 0.540367
0.566055 0.518349 0.659633
0.5 0.68889 0.621028
0.470311 0.333799 0.531229
0.47843 0.253798 0.709174
0.525711 0.697833 0.852294
0.470311 0.305056 0.76789
0.52157 0.630909 0.660705
0.52157 0.313175 0.716514
0.470311 0.261916 0.745872
0.463303 0.603992 0.617817
0.5 0.753211 0.819266
0.465099 0.689967 0.657853
0.538826 0.464909 0.301835
0.536697 0.285745 0.658451
0.479588 0.581171 0.69633
0.5 0.246789 0.811927
0.520412 0.455527 0.347706
0.52157 0.686825 0.775229
0.520412 0.455527 0.531193
0.47843 0.712498 0.656818
0.507684 0.722097 0.869391
0.562822 0.497936 0.155046
0.5 0.452293 0.797248
0.5 0.716514 0.870642
0.52157 0.29451 0.561853
0.536697 0.371101 0.530708
0.470311 0.635151 0.653784
0.465099 0.294826 0.687156
0.44656 0.479522 0.512844
0.48866 0.716715 0.653754
0.470311 0.729844 0.708525
0.51134 0.248585 0.753211
0.437178 0.497937 0.155046
0.51134 0.58398 0.57942
0.44656 0.479522 0.182569
0.48866 0.318388 0.745872
0.479588 0.455527 0.76055
0.562822 0.497936 0.347706
0.5 0.584404 0.136697
0.465099 0.303252 0.63396
0.538826 0.571788 0.411927
0.44656 0.557175 0.1
0.461174 0.464909 0.622936
0.51134 0.680235 0.743046
0.470311 0.346443 0.521262
0.437178 0.538761 0.182569
0.433945 0.518349 0.191743
0.437178 0.497937 0.22844
0.470311 0.35248 0.572664
0.470311 0.434895 0.484624
0.5 0.584404 0.540367
0.51134 0.669418 0.709754
0.433945 0.518349 0.109174
0.538826 0.571788 0.402752
0.52157 0.313175 0.797248
0.562822 0.538761 0.778899
0.52157 0.583571 0.584616
0.55344 0.479522 0.191743
0.566055 0.518349 0.356881
0.5 0.671436 0.718418
0.524679 0.275467 0.859894
0.534901 0.272146 0.694495
0.437178 0.538761 0.558716
0.490967 0.286421 0.869391
0.566055 0.518349 0.63211
0.470311 0.305056 0.811927
0.5 0.432705 0.544422
0.463303 0.716514 0.76789
0.472546 0.480561 0.880653
0.5 0.565056 0.880653
0.5 0.336183 0.620514
0.44656 0.479522 0.145872
0.5 0.452293 0.411927
0.479588 0.581171 0.16422
0.520412 0.455527 0.301835
0.433945 0.518349 0.522018
0.55344 0.557175 0.22844
0.44656 0.557175 0.393578
0.562822 0.497936 0.595413
0.47843 0.313175 0.811927
0.468219 0.716514 0.852294
0.461174 0.464909 0.531193
0.51134 0.750855 0.746294
0.479588 0.455527 0.723853
0.534901 0.727854 0.782569
0.479588 0.581171 0.494495
0.538826 0.464909 0.457798
0.5 0.753211 0.811927
0.528677 0.737349 0.843442
0.490967 0.713579 0.869391
0.44656 0.479522 0.485321
0.44656 0.557175 0.558716
0.529689 0.261916 0.76055
0.538826 0.571788 0.641285
0.462213 0.545803 0.880653
0.51134 0.598148 0.581097
0.479165 0.687837 0.843442
0.47843 0.328527 0.525057
0.55344 0.557175 0.778899
0.520412 0.581171 0.311009
0.48866 0.329698 0.630294
0.48866 0.318388 0.775229
0.51134 0.707883 0.642551
0.55344 0.557175 0.595413
0.520412 0.455527 0.430275
0.470311 0.261916 0.789908
0.520412 0.581171 0.494495
0.534901 0.272146 0.701835
0.48866 0.340283 0.609519
0.525711 0.264806 0.852294
0.520412 0.455527 0.650459
0.529689 0.261916 0.833945
0.52157 0.253797 0.811927
0.5 0.753211 0.804587
0.534901 0.272146 0.716514
0.437178 0.497937 0.595413
0.534901 0.294826 0.716514
0.437178 0.497937 0.769725
0.470311 0.317381 0.625193
0.562822 0.538761 0.56789
0.48866 0.421057 0.545842
0.465099 0.272146 0.789908
0.529689 0.582934 0.592712
0.5 0.452293 0.155046
0.529689 0.664942 0.679226
0.519413 0.491629 0.891149
0.5 0.663593 0.703027
0.517677 0.463943 0.866973
0.466288 0.70556 0.843442
0.5 0.257565 0.619116
0.47843 0.746203 0.826605
0.538826 0.571788 0.136697
0.514844 0.272701 0.865725
0.47843 0.367089 0.570206
0.45372 0.551973 0.866973
0.51134 0.676136 0.725974
0.5 0.341814 0.610459
0.463303 0.337228 0.557413
0.463303 0.283486 0.76055
0.44656 0.557175 0.457798
0.437178 0.538761 0.595413
0.453292 0.518349 0.880653
0.465099 0.313589 0.609002
0.507684 0.710931 0.869391
0.5 0.716514 0.870642
0.562822 0.497936 0.22844
0.470311 0.651048 0.665332
0.55344 0.479522 0.531193
0.48866 0.681612 0.775229
0.437178 0.538761 0.466973
0.47843 0.624259 0.592712
0.479588 0.581171 0.558716
0.562822 0.538761 0.641285
0.5 0.398932 0.477751
0.48866 0.681267 0.751773
0.5 0.518349 0.9
0.538826 0.464909 0.558716
0.55344 0.479522 0.182569
0.520412 0.581171 0.833945
0.437178 0.497937 0.118349
0.562822 0.497936 0.384404
0.517451 0.710844 0.865725
0.5 0.452293 0.145872
0.510049 0.53218 0.89775
0.538826 0.571788 0.668807
0.463303 0.285745 0.658451
0.437178 0.497937 0.356881
0.51134 0.248585 0.76055
0.5 0.698165 0.865725
0.534901 0.694863 0.708716
0.461174 0.571788 0.393578
0.463303 0.283486 0.811927
0.529689 0.271952 0.623791
0.55344 0.479522 0.356881
0.52157 0.367089 0.570209
0.470311 0.305056 0.738532
0.5 0.518349 0.9
0.534901 0.727854 0.775229
0.538826 0.464909 0.476147
0.529689 0.284266 0.594062
0.529689 0.738084 0.833945
0.536697 0.70534 0.704378
0.470311 0.359831 0.512316
0.5 0.716514 0.870642
0.562822 0.497936 0.687156
0.566055 0.518349 0.219266
0.55344 0.557175 0.421101
0.538826 0.571788 0.118349
0.479588 0.581171 0.219266
0.520412 0.581171 0.255963
0.546708 0.518349 0.880653
0.479588 0.581171 0.56789
0.433945 0.518349 0.466973
0.534901 0.294826 0.826605
0.508019 0.258807 0.859894
0.566055 0.518349 0.714679
0.5 0.273988 0.869391
0.437178 0.497937 0.255963
0.49433 0.733964 0.865725
0.433945 0.518349 0.549541
0.529689 0.261916 0.819266
0.55344 0.479522 0.393578
0.562822 0.497936 0.522018
0.520412 0.581171 0.136697
0.433945 0.518349 0.265138
0.465099 0.355172 0.556253
0.529689 0.305056 0.723853
0.479588 0.455527 0.375229
0.489046 0.317198 0.843442
0.479588 0.455527 0.411927
0.44656 0.479522 0.723853
0.490179 0.253261 0.852294
0.562822 0.538761 0.742202
0.536697 0.452576 0.504235
0.562822 0.497936 0.586239
0.515252 0.695521 0.859894
0.529689 0.305056 0.811927
0.465099 0.727854 0.804587
0.52157 0.313175 0.738532
0.479588 0.455527 0.751376
0.47843 0.74403 0.732943
0.479588 0.455527 0.246789
0.5 0.452293 0.824771
0.47843 0.746203 0.789908
0.44656 0.557175 0.283486
0.48866 0.318388 0.701835
0.5 0.584404 0.1
0.520412 0.581171 0.237615
0.47843 0.686825 0.782569
0.562822 0.497936 0.145872
0.465099 0.705174 0.811927
0.5 0.283486 0.870642
0.520993 0.701261 0.859894
0.5 0.584404 0.457798
0.437178 0.538761 0.448624
0.55344 0.557175 0.375229
0.47843 0.324882 0.628301
0.566055 0.518349 0.769725
0.461174 0.571788 0.265138
0.482323 0.572754 0.866973
0.464553 0.283486 0.843442
0.529689 0.646158 0.610543
0.538826 0.571788 0.824771
0.5 0.518349 0.9
0.51134 0.318388 0.804587
0.437178 0.538761 0.393578
0.5 0.535445 0.89775
0.465099 0.582131 0.60291
0.433945 0.518349 0.604587
0.461174 0.464909 0.237615
0.437178 0.497937 0.393578
0.433945 0.518349 0.411927
0.461174 0.571788 0.650459
0.534901 0.296946 0.660228
0.5 0.753211 0.833945
0.55344 0.479522 0.806422
0.538826 0.464909 0.613761
0.51134 0.665125 0.702088
0.470311 0.62175 0.600433
0.529689 0.688815 0.721857
0.5 0.324239 0.652888
0.520412 0.455527 0.613761
0.538826 0.464909 0.219266
0.437178 0.497937 0.56789
0.479588 0.455527 0.769725
0.5 0.584404 0.448624
0.538826 0.464909 0.255963
0.536697 0.716514 0.819266
0.433945 0.518349 0.402752
0.48866 0.648841 0.681435
0.55344 0.557175 0.182569
0.534901 0.453466 0.515541
0.47843 0.686464 0.751361
0.433945 0.518349 0.485321
0.51134 0.318388 0.738532
0.482549 0.710844 0.865725
0.562822 0.497936 0.265138
0.465099 0.294826 0.797248
0.461174 0.571788 0.219266
0.5 0.582153 0.851042
0.437178 0.538761 0.237615
0.5 0.270787 0.587196
0.491981 0.741193 0.859894
0.433945 0.518349 0.788073
0.437178 0.497937 0.806422
0.55344 0.557175 0.751376
0.465099 0.294826 0.76789
0.461174 0.571788 0.411927
0.47843 0.726967 0.680429
0.5 0.452293 0.375229
0.515252 0.304479 0.859894
0.534901 0.590914 0.626771
0.529689 0.450884 0.48273
0.5 0.452293 0.274312
0.461174 0.464909 0.788073
0.529689 0.681296 0.703703
0.529689 0.416938 0.533163
0.536697 0.603992 0.617817
0.463303 0.283486 0.819266
0.437178 0.538761 0.687156
0.55344 0.557175 0.549541
0.437178 0.538761 0.127523
0.52157 0.746203 0.804587
0.536697 0.283486 0.811927
0.562822 0.538761 0.512844
0.463303 0.359122 0.538712
0.461174 0.464909 0.118349
0.538826 0.571788 0.806422
0.48866 0.595844 0.651754
0.562822 0.538761 0.375229
0.461174 0.571788 0.522018
0.566055 0.518349 0.145872
0.507684 0.289069 0.869391
0.479588 0.581171 0.182569
0.5 0.320183 0.789908
0.51134 0.353987 0.590657
0.470311 0.343851 0.582
0.44656 0.479522 0.604587
0.55344 0.479522 0.613761
0.44656 0.479522 0.833945
0.5 0.252873 0.635754
0.514433 0.473927 0.880653
0.5 0.716514 0.870642
0.5 0.452293 0.136697
0.433945 0.518349 0.531193
0.470311 0.312981 0.637119
0.509033 0.719449 0.869391
0.437178 0.497937 0.63211
0.47843 0.588043 0.644892
0.538826 0.571788 0.595413
0.5 0.449697 0.467651
0.465099 0.401095 0.528114
0.465099 0.274545 0.656679
0.534901 0.294826 0.789908
0.433945 0.518349 0.733028
0.5 0.584404 0.466973
0.461174 0.464909 0.769725
0.44656 0.557175 0.668807
0.437178 0.538761 0.485321
0.437178 0.538761 0.439449
0.437178 0.497937 0.815596
0.465099 0.681539 0.648738
0.529689 0.33598 0.591985
0.463303 0.716514 0.833945
0.520993 0.268234 0.859894
0.471323 0.304321 0.843442
0.55344 0.479522 0.577064
0.486169 0.5083 0.89775
0.5 0.246789 0.819266
0.520412 0.455527 0.705505
0.52157 0.686825 0.826605
0.534901 0.294826 0.811927
0.44656 0.479522 0.347706
0.479588 0.581171 0.439449
0.55344 0.557175 0.246789
0.534901 0.272146 0.76055
0.562822 0.538761 0.320183
0.5 0.452293 0.384404
0.461174 0.464909 0.604587
0.433945 0.518349 0.301835
0.465099 0.272146 0.694495
0.529689 0.738084 0.797248
0.433945 0.518349 0.742202
0.529689 0.305056 0.694495
0.479588 0.455527 0.476147
0.48866 0.410111 0.549883
0.437178 0.497937 0.421101
0.51134 0.318388 0.731193
0.5 0.246789 0.738532
0.5 0.584404 0.366055
0.536697 0.283486 0.789908
0.55344 0.479522 0.246789
0.5 0.320183 0.782569
0.562822 0.538761 0.155046
0.51134 0.340283 0.609519
0.479588 0.455527 0.219266
0.44656 0.557175 0.512844
0.494717 0.502089 0.89775
0.55344 0.557175 0.622936
0.479588 0.581171 0.797248
0.538826 0.464909 0.466973
0.536697 0.359122 0.538712
0.562822 0.538761 0.265138
0.562822 0.497936 0.668807
0.55344 0.557175 0.136697
0.51134 0.318388 0.797248
0.566055 0.518349 0.788073
0.52157 0.588043 0.644892
0.470311 0.738084 0.826605
0.479588 0.455527 0.69633
0.538826 0.464909 0.402752
0.52157 0.746203 0.76055
0.538826 0.464909 0.1
0.538826 0.464909 0.751376
0.51134 0.318388 0.811927
0.461174 0.464909 0.558716
0.47843 0.431069 0.537607
0.562822 0.497936 0.641285
0.551619 0.480845 0.851042
0.55344 0.479522 0.292661
0.5 0.667817 0.710569
0.538826 0.464909 0.347706
0.566055 0.518349 0.577064
0.5 0.380692 0.5684
0.470311 0.693402 0.740961
0.529689 0.261916 0.731193
0.534901 0.294826 0.819266
0.48866 0.318388 0.797248
0.461174 0.571788 0.485321
0.462496 0.46673 0.851042
0.55344 0.557175 0.742202
0.44656 0.479522 0.173395
0.482549 0.722184 0.865725
0.534901 0.272146 0.826605
0.5 0.584404 0.476147
0.5 0.679477 0.751912
0.466288 0.29444 0.843442
0.5 0.257537 0.859894
0.562822 0.497936 0.1
0.52157 0.313175 0.701835
0.475321 0.275467 0.859894
0.52157 0.253797 0.694495
0.520835 0.745191 0.843442
0.465099 0.704552 0.677927
0.52157 0.605911 0.649182
0.55344 0.479522 0.595413
0.520412 0.455527 0.402752
0.5 0.584404 0.668807
0.433945 0.518349 0.375229
0.465099 0.272146 0.76055
0.437178 0.538761 0.200917
0.479588 0.581171 0.788073
0.52157 0.376573 0.56273
0.5 0.452293 0.329358
0.470311 0.694944 0.826605
0.437178 0.538761 0.833945
0.566055 0.518349 0.127523
0.463303 0.452576 0.504235
0.538826 0.571788 0.586239
0.461174 0.464909 0.127523
0.47843 0.694513 0.635761
0.529689 0.608419 0.641461
0.5 0.246789 0.76055
0.562822 0.497936 0.63211
0.520412 0.581171 0.246789
0.48866 0.272388 0.588011
0.520412 0.455527 0.375229
0.48866 0.751415 0.804587
0.463303 0.310525 0.591285
0.51134 0.681612 0.76055
0.461174 0.571788 0.200917
0.562822 0.538761 0.806422
0.48866 0.318388 0.687156
0.562822 0.538761 0.723853
0.465099 0.705174 0.797248
0.536697 0.283486 0.716514
0.461174 0.464909 0.329358
0.47843 0.253798 0.833945
0.5 0.452293 0.210092
0.529689 0.305056 0.731193
0.538826 0.571788 0.393578
0.529689 0.261916 0.775229
0.437178 0.497937 0.577064
0.461174 0.464909 0.540367
0.534901 0.272747 0.671872
0.536697 0.303485 0.603853
0.461174 0.464909 0.549541
0.461174 0.571788 0.210092
0.44656 0.557175 0.531193
0.48866 0.707883 0.642551
0.5 0.518349 0.9
0.566055 0.518349 0.522018
0.437178 0.497937 0.191743
0.538826 0.571788 0.329358
0.479588 0.455527 0.366055
0.510785 0.298331 0.865725
0.52157 0.253797 0.731193
0.5 0.518349 0.9
0.52672 0.498935 0.891149
0.534901 0.641514 0.619655
0.529689 0.668684 0.624345
0.51134 0.248585 0.826605
0.51134 0.320217 0.663912
0.5 0.454544 0.851042
0.51134 0.361907 0.582092
0.479588 0.581171 0.375229
0.55344 0.479522 0.723853
0.44656 0.479522 0.714679
0.47843 0.313175 0.694495
0.5 0.716514 0.870642
0.44656 0.557175 0.723853
0.44656 0.557175 0.485321
0.479588 0.581171 0.237615
0.562822 0.497936 0.485321
0.437178 0.538761 0.118349
0.562822 0.538761 0.540367
0.5 0.452293 0.751376
0.470311 0.685412 0.712631
0.44656 0.479522 0.613761
0.538826 0.464909 0.145872
0.437178 0.497937 0.540367
0.48866 0.415991 0.474804
0.465099 0.66267 0.63262
0.465099 0.727854 0.811927
0.47843 0.342548 0.596756
0.5 0.679816 0.833945
0.48866 0.635491 0.670033
0.55344 0.557175 0.366055
0.479588 0.455527 0.439449
0.536697 0.709329 0.715189
0.461174 0.571788 0.439449
0.437178 0.497937 0.705505
0.5 0.461143 0.866973
0.463303 0.283486 0.731193
0.513831 0.528398 0.89775
0.51134 0.681612 0.826605
0.44656 0.479522 0.191743
0.5 0.684733 0.852294
0.5 0.681067 0.843442
0.44656 0.557175 0.466973
0.463303 0.371101 0.530708
0.47843 0.313175 0.753211
0.469775 0.293307 0.852294
0.52157 0.624259 0.592712
0.529689 0.261916 0.804587
0.520412 0.581171 0.301835
0.461174 0.571788 0.806422
0.562822 0.497936 0.246789
0.566055 0.518349 0.677982
0.5 0.246789 0.753211
0.530225 0.273665 0.852294
0.44656 0.479522 0.69633
0.529689 0.694943 0.76055
0.48866 0.318388 0.753211
0.48132 0.309197 0.852294
0.562822 0.497936 0.577064
0.479588 0.581171 0.191743
0.479588 0.455527 0.586239
0.5 0.452293 0.613761
0.470311 0.416938 0.533163
0.44656 0.557175 0.191743
0.489046 0.249774 0.843442
0.48866 0.248585 0.716514
0.520412 0.581171 0.806422
0.5 0.452293 0.173395
0.479588 0.581171 0.320183
0.55344 0.479522 0.430275
0.520412 0.581171 0.751376
0.534901 0.727367 0.748143
0.534901 0.320194 0.597211
0.534901 0.300856 0.585358
0.52157 0.63726 0.597505
0.520412 0.581171 0.577064
0.47843 0.661934 0.610077
0.536697 0.68848 0.674272
0.479588 0.455527 0.577064
0.557205 0.518349 0.866973
0.433945 0.518349 0.246789
0.5 0.584404 0.659633
0.51134 0.628186 0.665149
0.48866 0.338608 0.510477
0.5 0.246789 0.723853
0.44656 0.557175 0.677982
0.534901 0.340443 0.539009
0.536697 0.716514 0.782569
0.479588 0.455527 0.16422
0.465099 0.413776 0.523435
0.566055 0.518349 0.687156
0.479588 0.455527 0.641285
0.479588 0.455527 0.191743
0.48866 0.352865 0.500951
0.437178 0.538761 0.255963
0.5 0.283486 0.870642
0.52157 0.317425 0.651251
0.566055 0.518349 0.733028
0.562822 0.538761 0.191743
0.5 0.246789 0.789908
0.461174 0.571788 0.733028
0.437178 0.538761 0.283486
0.51134 0.731612 0.678066
0.566055 0.518349 0.329358
0.52157 0.686825 0.789908
0.55344 0.557175 0.769725
0.480587 0.491629 0.891149
0.44656 0.557175 0.237615
0.529689 0.738084 0.789908
0.463303 0.283486 0.826605
0.48866 0.259274 0.61967
0.44656 0.557175 0.421101
0.566055 0.518349 0.191743
0.534901 0.272146 0.811927
0.527454 0.556136 0.880653
0.465099 0.272146 0.775229
0.534901 0.665502 0.664774
0.51134 0.681268 0.751773
0.479588 0.455527 0.788073
0.5 0.452293 0.650459
0.463303 0.646422 0.635391
0.520412 0.455527 0.595413
0.5 0.584404 0.301835
0.461174 0.464909 0.733028
0.536697 0.327448 0.567993
0.44656 0.479522 0.210092
0.538826 0.571788 0.512844
0.55344 0.557175 0.705505
0.48866 0.399487 0.479457
0.562822 0.497936 0.50367
0.51134 0.751415 0.76789
0.562822 0.497936 0.118349
0.520412 0.455527 0.210092
0.55344 0.557175 0.577064
0.534901 0.378523 0.513563
0.461174 0.464909 0.182569
0.529689 0.322704 0.613648
0.5 0.421612 0.547552
0.520412 0.455527 0.815596
0.48866 0.318388 0.833945
0.485156 0.272701 0.865725
0.5 0.331357 0.630983
0.534901 0.272146 0.687156
0.437178 0.538761 0.613761
0.44656 0.557175 0.448624
0.470311 0.305056 0.745872
0.536697 0.283486 0.76055
0.520412 0.581171 0.56789
0.529689 0.305056 0.716514
0.52157 0.264231 0.621281
0.55344 0.557175 0.402752
0.463303 0.625898 0.624936
0.44656 0.557175 0.255963
0.48866 0.751415 0.76055
0.5 0.246789 0.833945
0.538826 0.571788 0.320183
0.44656 0.479522 0.411927
0.566055 0.518349 0.833945
0.465099 0.299583 0.646969
0.562822 0.497936 0.531193
0.470311 0.694944 0.76789
0.433945 0.518349 0.69633
0.465099 0.727854 0.833945
0.479588 0.455527 0.815596
0.560682 0.538065 0.851042
0.463303 0.284052 0.67276
0.562822 0.538761 0.145872
0.5 0.584404 0.788073
0.520412 0.455527 0.246789
0.437178 0.538761 0.788073
0.51134 0.251274 0.652991
0.51134 0.248585 0.804587
0.520412 0.581171 0.384404
0.52157 0.313649 0.67509
0.48866 0.361907 0.582092
0.5 0.351927 0.49942
0.520412 0.455527 0.421101
0.55344 0.557175 0.604587
0.5 0.2495 0.652712
0.51134 0.681612 0.811927
0.437178 0.538761 0.824771
0.5 0.283486 0.870642
0.54628 0.551973 0.866973
0.465099 0.727854 0.775229
0.52157 0.355589 0.505395
0.520412 0.455527 0.16422
0.5 0.584404 0.577064
0.534901 0.440043 0.51713
0.48866 0.248585 0.731193
0.461174 0.571788 0.246789
0.51868 0.309197 0.852294
0.519716 0.457667 0.851042
0.529689 0.403607 0.492136
0.520412 0.455527 0.274312
0.47843 0.313175 0.709174
0.463303 0.681344 0.665218
0.470311 0.450884 0.48273
0.465099 0.451687 0.492928
0.562822 0.538761 0.292661
0.5 0.452293 0.301835
0.465099 0.340443 0.539009
0.47843 0.737565 0.706015
0.437178 0.497937 0.274312
0.520412 0.455527 0.56789
0.529689 0.454268 0.525739
0.534901 0.727854 0.811927
0.5 0.679816 0.775229
0.433945 0.518349 0.329358
0.470311 0.261916 0.797248
0.5 0.320183 0.753211
0.55344 0.479522 0.797248
0.505583 0.29117 0.869391
0.51134 0.318388 0.819266
0.5 0.452293 0.366055
0.520412 0.581171 0.540367
0.48866 0.248585 0.745872
0.470311 0.305056 0.782569
0.520412 0.581171 0.769725
0.536697 0.396755 0.517637
0.536697 0.681344 0.665218
0.437178 0.538761 0.384404
0.5 0.452293 0.265138
0.47328 0.498935 0.891149
0.520412 0.581171 0.824771
0.463303 0.716514 0.826605
0.479588 0.455527 0.613761
0.463303 0.297453 0.616939
0.529689 0.261916 0.789908
0.51134 0.248585 0.694495
0.562822 0.497936 0.109174
0.520412 0.581171 0.668807
0.510953 0.682802 0.843442
0.538826 0.464909 0.705505
0.47843 0.313175 0.701835
0.465099 0.294826 0.811927
0.534901 0.64934 0.650969
0.534901 0.272146 0.819266
0.47843 0.313175 0.833945
0.5 0.283486 0.870642
0.5 0.320183 0.709174
0.52157 0.746203 0.76789
0.51134 0.751415 0.775229
0.433945 0.518349 0.118349
0.5 0.584404 0.705505
0.534901 0.705174 0.833945
0.461174 0.571788 0.641285
0.562822 0.497936 0.448624
0.461174 0.571788 0.347706
0.562822 0.497936 0.512844
0.461174 0.464909 0.246789
0.48866 0.318388 0.811927
0.479588 0.581171 0.457798
0.479588 0.455527 0.714679
0.47843 0.681094 0.724363
0.529689 0.333799 0.531229
0.461174 0.571788 0.815596
0.520412 0.581171 0.723853
0.538826 0.464909 0.622936
0.55344 0.479522 0.687156
0.44656 0.557175 0.540367
0.534901 0.727854 0.76055
0.465099 0.727854 0.76055
0.529689 0.738084 0.775229
0.520412 0.581171 0.778899
0.536697 0.283486 0.687156
0.479588 0.455527 0.430275
0.485156 0.294271 0.865725
0.566055 0.518349 0.742202
0.502935 0.292519 0.869391
0.461174 0.571788 0.476147
0.538826 0.464909 0.136697
0.470311 0.305056 0.819266
0.509821 0.253261 0.852294
0.433945 0.518349 0.338532
0.470311 0.261916 0.723853
0.566055 0.518349 0.531193
0.461174 0.464909 0.1
0.439319 0.498632 0.851042
